-0.271696239188381   1.13304557425758  0.275889816780842 1.19738310942537 1766568121.2592
-0.430574598459713   1.12787276747999  0.316732458309647 1.24812295652655 1766568121.26804
-0.446581602806697   1.12256766434155  0.305102273532038 1.24606608424476 1766568121.27811
-0.445778965084204   1.10740017271882  0.300547667922929 1.23100890693087 1766568121.28908
-0.42364688678066  1.08233282608597 0.289353230802221 1.19776722416247 1766568121.29883
-0.453660621581222   1.04549241079742   0.23543209307404 1.16373992414872 1766568121.30967
-0.357949115922027   1.00735813805318  0.309995238255596 1.11310153877914 1766568121.31938
-0.227967246724404  0.933715856668663   0.23042026035119 0.988376377173145 1766568121.33039
-0.112562105009065  0.889847554458399  0.298107269632261 0.945180851407426 1766568121.34001
-0.0745158066691849   0.932324924315213   0.283798467386892 0.977406742371913 1766568121.34929
-0.190894777503096  0.979287326834937  0.234029293054145 1.02479958752182 1766568121.3588
-0.37605893800319  1.00163690853014  0.23947551592651 1.09637828513254 1766568121.368
-0.413539165510261   1.00467093368775  0.229525550373252 1.11043248542273 1766568121.37804
-0.415795388399017  0.988832982852258   0.22876102635227 1.09681725012334 1766568121.38912
-0.391576520078257  0.954091370143668    0.2187557948676 1.05426591116633 1766568121.39788
-0.335090926588534  0.904829636643749  0.208795238299463 0.98721732762718 1766568121.40747
-0.28931594758476 0.877180873659948 0.228870870708548 0.951594387383925 1766568121.41629
-0.19587502206573 0.796835400497951 0.212539967380681 0.847636076090536 1766568121.42563
-0.133977541535829  0.918792667968912  0.238045971895552 0.958538383730727 1766568121.44463
-0.14444090842171   0.6361051212532  0.13846776389224 0.666832979798955 1766568121.45312
-0.115349311822994  0.655844644496156  0.172124848403552 0.687796935795931 1766568121.46154
-0.191515568177453   0.63931248603285  0.191941985315663 0.694435305394789 1766568121.46985
-0.166080493320104  0.623377104092093  0.197112103056688 0.674562766048589 1766568121.47905
-0.168029046769553  0.600324787927825  0.187961862712489 0.651116942947441 1766568121.48906
-0.172922066380443  0.574921419220023  0.173078031998594 0.624814119942687 1766568121.49878
-0.0906935256429567   0.561528941004304   0.118469103957977 0.581012044429003 1766568121.50942
-0.0227198924690851   0.547515969462816   0.179263719387154 0.576563449603884 1766568121.51918
0.00632966555207896   0.611857174437823   0.189139611428479 0.64045535300156 1766568121.53021
0.106819856436614  0.68441711714955 0.298021701238017 0.754091643227294 1766568121.53989
0.0964848586592659  0.780880432430308  0.282894445751321 0.836129682011104 1766568121.54917
0.054740080365878 0.815007264149705 0.191618294899034 0.839017811464848 1766568121.55877
-0.173051795092108  0.827312931547305  0.117076056344953 0.853288001473877 1766568121.568
-0.209428652066294  0.834561646017653  0.114913836593719 0.868077583601079 1766568121.57799
-0.197150013708234  0.802147419349924  0.109149096670912 0.833199937337357 1766568121.58906
-0.198792347942485   0.76763180250736 0.0983147424552738 0.799026138749685 1766568121.59881
-0.162099517997767  0.642851282614548 0.0350026771940845 0.663896989528519 1766568121.60944
 0.0130998138828082   0.567044216810187 0.00148721377657767 0.567197461865319 1766568121.61909
0.0314005882900267  0.549161124726714 0.0976095025049582 0.558651548673531 1766568121.63016
0.126607441591022 0.541500323324274 0.210693181412449 0.594679460819202 1766568121.63988
0.140096556565881 0.661656439588731 0.223494538218219 0.712296355335494 1766568121.64915
0.0803162494247152  0.667872653146568  0.140163162757903 0.687131932700691 1766568121.65876
-0.0594320301949317   0.724170033779128 -0.0510327034512056 0.728394632639679 1766568121.66805
 -0.115227100871512   0.711701750383007 -0.0799479594726157 0.725388408025193 1766568121.67801
-0.0961752375464162    0.67931228441819 -0.0846148206557294 0.691284690958198 1766568121.68905
-0.101985145257494  0.671764839933569  -0.08397537744869 0.684631896745846 1766568121.69889
-0.0586709547155996   0.459584696968405  -0.114942032890979 0.477359451084706 1766568121.70935
0.0751377545766357  0.418774035470246 -0.096905686245832 0.436357751132748 1766568121.71904
  0.146312385977797   0.412824535550477 -0.0454949467578708 0.44034214154846 1766568121.73009
0.214103481800085 0.455277969202865 0.101113951068709 0.51316894027321 1766568121.73979
 0.244196361142872  0.539515945602659 0.0706742915113005 0.596409401196507 1766568121.74912
 0.0992757631508431   0.480675124863425 -0.0371965137237114 0.49222742045202 1766568121.75924
-0.042661764704073   0.52222476591214 -0.162160922404577 0.548484181225637 1766568121.76799
-0.123880735576565   0.52129932468458 -0.207226814979618 0.574493146530214 1766568121.77809
-0.109150051272233   0.49199115065601 -0.211101861744593 0.546381754864297 1766568121.78904
 -0.10821525256206  0.487245850119208 -0.208333341587097 0.540852882549688 1766568121.79887
-0.0395771451399256   0.272394607318576  -0.327100578606039 0.427504340373374 1766568121.80925
 0.141409432866233  0.235457563757011 -0.303946244400597 0.409658652440253 1766568121.819
 0.215096374473529  0.208570857821116 -0.120907769332519 0.32308968062886 1766568121.8301
0.210401568323645 0.233064795281481 0.148214089440879 0.347210937416201 1766568121.83975
0.205455883982454 0.307500652185867 0.104847977773979 0.38439806165099 1766568121.84917
 0.0501304226203451   0.251998662249005 -0.0175927627373507 0.257538133774622 1766568121.85868
-0.0732121746933218   0.284778765499198  -0.165550074449277 0.337440061274197 1766568121.86796
-0.141688234559059  0.277514840286585 -0.200203111475802 0.370366478283799 1766568121.87811
-0.111948636554305    0.2371356629507 -0.200580930781162 0.330149253614897 1766568121.88904
-0.118419220963577  0.239234098539274 -0.201647441454582 0.334541113232288 1766568121.899
-0.0125628326986217    0.03682506359683  -0.228568132759878 0.231856208430271 1766568121.90927
 0.0386263211966143 -0.0272847679060155  -0.145613932982323 0.153100844959947 1766568121.91907
  0.158125516018118 -0.0474415029461422  -0.188363982839029 0.250470287756386 1766568121.93007
  0.231391473782494 -0.0307751549107616  -0.054288655013433 0.239658887509275 1766568121.93975
  0.231906382367585  0.0314101543112081 -0.0549289991799326 0.240383782580239 1766568121.94911
 0.0799045608599941 -0.0378470175432079  -0.105879977418053 0.137940948239426 1766568121.95871
 -0.038476175271379 -0.0143995202159284  -0.197825659025423 0.202046414506186 1766568121.968
-0.0875850240457747  -0.034208177784008  -0.226225506722038 0.244988399227482 1766568121.9782
-0.0540983718486379 -0.0686444521291833  -0.219803032844844 0.236541894582293 1766568121.98903
-0.0549360798054061 -0.0526164518859812  -0.216809398293303 0.229766792774238 1766568121.99888
0.0481024172446418 -0.272164037533328 -0.236087297854945 0.363489089354371 1766568122.00938
0.0925856813558539 -0.356894352786015 -0.193645917804957 0.416466600011574 1766568122.01908
 0.176099851243894 -0.421250768566852 -0.176180977608206 0.489390543939366 1766568122.03019
  0.280404555865342  -0.356291360211807 -0.0322819897330193 0.454546339961881 1766568122.03996
  0.262991936245449  -0.271783742340208 -0.0618647194346742 0.383221091070559 1766568122.04926
 0.190682944049207  -0.30085610652626 -0.102824000337674 0.370738664062511 1766568122.0589
-0.0194421995383331  -0.325994619109312  -0.144386731057528 0.357068647344727 1766568122.06812
-0.082529448256361 -0.316107387855398 -0.162719666629621 0.36498312343767 1766568122.07822
-0.0622930664052771  -0.346890818455149   -0.16603920873333 0.389592973354815 1766568122.08907
-0.0652559102954929  -0.318950909400976  -0.163645962856507 0.364373458961319 1766568122.09878
0.000658192323449226   -0.452185379733923   -0.179072215183392 0.486352659202079 1766568122.10926
 0.111527837697213 -0.544205438698961 -0.240487865232339 0.605336626526887 1766568122.11901
 0.196774731970369 -0.661502897159379 -0.171828788282479 0.711218328345725 1766568122.13011
 0.321933168763825 -0.664818042979619 0.0148243216579634 0.738812395628407 1766568122.13986
  0.374670105533302  -0.580481392862117 -0.0665315836804851 0.694091339138094 1766568122.14916
 0.270229581230812 -0.622129097469533 -0.162265578856195 0.697422940956183 1766568122.15874
0.0841197989217907 -0.650404342207546 -0.123030795293052 0.667261961693841 1766568122.16793
0.0554027860399939 -0.668900376670443  -0.12284997798593 0.682341043542009 1766568122.17808
0.0620481121659518 -0.694177979535398 -0.137412116209392 0.71036267158146 1766568122.189
0.0359164034646884 -0.623687604192745 -0.130831692136074 0.638273567781647 1766568122.19874
0.0516709602169747 -0.698902381607083 -0.146248583512398 0.7159071694886 1766568122.20928
 0.176155482415101 -0.830801888062773 -0.144847409686288 0.861535433564048 1766568122.21911
 0.341832650825604 -0.993166651222006 -0.126882921976034 1.05798338085207 1766568122.2302
  0.431632165689967     -1.059043060509 -0.0154580622537626 1.14372963682818 1766568122.23988
  0.477729630734573  -0.918069615575517 -0.0178544744741334 1.03508270267816 1766568122.24915
 0.379767744957261 -0.948910183617136 -0.119636557249827 1.02906121417184 1766568122.25925
 0.249384448867667 -0.938755061622444 -0.074221139142737 0.974147035387592 1766568122.26789
  0.193359436552824  -0.928942234195785 -0.0967589146382174 0.953773470871699 1766568122.27817
 0.187328751659289 -0.941869464698302 -0.116541926415412 0.967363515097561 1766568122.28909
  0.16559165546178 -0.883342412957035 -0.110616894636207 0.905511188371678 1766568122.29884
 0.151370205049026  -1.00532716702906 -0.121750717640776 1.02392328276551 1766568122.30947
 0.206454455985724   -1.0432119191512 -0.131956409456948 1.07160022613485 1766568122.31944
 0.288407748984698  -1.13974043478945 -0.287592315362575 1.21032914045068 1766568122.33044
  0.35829610931533  -1.20406888764069 -0.166526642678155 1.2672368014134 1766568122.34014
 0.434103159804338  -1.01964846536218 -0.160955316918587 1.11983711329457 1766568122.34941
 0.391387927833286 -0.969753430271433 -0.108569299456185 1.05137696301624 1766568122.35886
  0.257879919850144  -0.958060483333831 -0.0805022890521697 0.995420796111077 1766568122.36805
  0.175479227685258  -0.913226850219523 -0.0902150392963514 0.934299198665036 1766568122.37816
  0.166742710843312  -0.917546333321316 -0.0973574718410402 0.937642193341386 1766568122.38904
  0.145061109207994  -0.862252216080981 -0.0696730979803236 0.877140781245173 1766568122.3979
  0.148126543000063  -0.859124080897914 -0.0416902082345538 0.87279650124326 1766568122.40702
  0.155547415731747   -0.89776469949988 -0.0954122123834015 0.916122232281714 1766568122.41682
0.271870323524191 -1.04094345997447 -0.15963449853507 1.08763961531351 1766568122.42624
0.384773938394234 -1.34756672583809 -0.22609747896119 1.41954469258492 1766568122.44486
  0.483089742852061  -0.859797293079608 -0.0848484121923156 0.989861777162574 1766568122.45335
 0.344235864891224 -0.830345722194631  0.010987391166194 0.898939971193277 1766568122.46178
 0.267785577473887  -0.81074414555349 0.0544225504702943 0.855556543456932 1766568122.47002
 0.192070633885375 -0.782441516390678 0.0481504026330582 0.807108614900497 1766568122.47929
 0.199006249768284 -0.802123753796916 0.0471450325558615 0.827785393653926 1766568122.48904
 0.173069245966479 -0.769026814011883 0.0596006125158703 0.790510871260439 1766568122.49871
 0.199903106133204 -0.859940564302059 0.0717688415869779 0.885782023184363 1766568122.50952
  0.237261482224142  -0.881276954428348 -0.0333980261706516 0.913267490665138 1766568122.51993
 0.337576708176115 -0.979189633913195 -0.222613490804377 1.05939942389742 1766568122.53078
0.401906346087672  -1.0806271486605 -0.17891439240669 1.16674509009377 1766568122.54036
 0.421392023622536  -1.02998385540752 -0.155320074857941 1.12363797801014 1766568122.54959
 0.487605700621403  -1.01023683101478 0.0672899651966593 1.12377298127044 1766568122.55894
 0.468656099211163 -0.995469023618406  0.137742362298114 1.10885980839918 1766568122.56807
 0.401213639135488 -0.959010553194309  0.182810642600043 1.05550620860999 1766568122.57811
 0.389865502049665 -0.959549383487903  0.178976188054475 1.05107687869678 1766568122.58903
 0.351050270560485 -0.919817477489864  0.202889450523662 1.00521868938565 1766568122.59857
 0.272628653503008 -0.867329541947093  0.175396391412631 0.925932400969742 1766568122.60937
 0.338537961364393 -0.919446207957976 0.0990029793203966 0.984779605052509 1766568122.62025
  0.369983472131867  -0.979772328177658 -0.0867201845505343 1.05088628077537 1766568122.63089
  0.438626639708022   -1.02162649182577 -0.0837904211257346 1.11495957439461 1766568122.64046
 0.571564406726765 -0.825415542774506 -0.136468337629768 1.01322272796562 1766568122.6496
 0.592666202342689 -0.763633688653679  0.135408256781844 0.97607634632278 1766568122.65895
 0.45363602091634 -0.74559500899193 0.250752311016137 0.908060723953206 1766568122.66805
 0.379326844639796 -0.712752484544624  0.270034254731731 0.851365642962787 1766568122.67819
  0.38134108449198 -0.722352459100091  0.268469865551852 0.859819845432109 1766568122.68906
 0.378556765526137 -0.702823816537062  0.279819731195356 0.845911120498823 1766568122.69859
 0.283086765308464 -0.588837985412454  0.241387598791269 0.69651723783954 1766568122.70924
 0.217134456657505 -0.600474342718306  0.119990565129269 0.64970342791998 1766568122.72019
  0.194046548711161  -0.610106679059448 -0.0448261879888638 0.6417893813622 1766568122.73097
  0.185651201888538  -0.589717774975315 -0.0822273095256481 0.623694439061566 1766568122.74058
 0.382131897832562 -0.369620244483374 -0.223476776699962 0.576702507535098 1766568122.74968
 0.285452370574131 -0.327734003001022 0.0214745006735598 0.435148005589643 1766568122.75935
 0.180799472821868 -0.313312187783782  0.136114731748272 0.3864973435684 1766568122.76809
0.0532733258781296 -0.217349066053931  0.214213461330386 0.309783909814209 1766568122.77823
0.0476922205674731  -0.22254683858991  0.220754133262023 0.317071018261346 1766568122.78912
0.0478993001490107 -0.201617926334968  0.232963583132914 0.311795064490289 1766568122.79872
-0.0655789530985666  -0.184192311045712   0.199097686693769 0.279047120366211 1766568122.80917
-0.167805053363251 -0.199974071222986  0.106572140199959 0.281967704112615 1766568122.82014
-0.186418031357114 -0.218015029014174 0.0376334649902017 0.289306952868889 1766568122.83093
-0.178121370047247 -0.321709037335735 0.0025190984371436 0.3677366898039 1766568122.84056
 -0.103012757999346  -0.174808929450149 0.00291713366896251 0.202924369642933 1766568122.84966
-0.0918656205483348  -0.140802444839655   0.177685259536632 0.244615355544485 1766568122.85895
-0.160351850739018 -0.140754382913524  0.272288571438597 0.345927128859341 1766568122.86807
  -0.26358090836344 -0.0884240192544699   0.321490840573215 0.425029484868148 1766568122.87819
-0.263452449923514 -0.100504780980686  0.323127750421956 0.428858889920019 1766568122.88904
 -0.251902270243333 -0.0956533930741105   0.330959229467735 0.426776682739594 1766568122.89861
 -0.323244346067226 -0.0856880609465584    0.31719936268078 0.460917331783372 1766568122.90936
-0.421119672344093 -0.105977218614519  0.207747418436937 0.481385437220194 1766568122.92018
-0.357858350482805 -0.117175511548107 0.0710051214939164 0.383189805181715 1766568122.93102
-0.305872980082465 -0.181640901472832 0.0449775652337898 0.358573114450528 1766568122.94055
 -0.185708170896306  -0.101061981467733 0.00803749244310805 0.211578945362266 1766568122.9497
 -0.154519536929993 -0.0770135424336136   0.218926383748608 0.278812005682102 1766568122.95898
 -0.242310955400871 -0.0793957901200023   0.341520871070123 0.426209802764505 1766568122.96807
  -0.332205238068991 -0.00415605130845243    0.403148779186464 0.522404566521474 1766568122.9782
  -0.316886099586389 -0.00788471241751735    0.402829027505447 0.512591644686066 1766568122.98905
 -0.312926245854695 -0.0154398883751454    0.39910066254811 0.507387982065096 1766568122.99861
-0.495799223298103 0.0874208685760874  0.371947279669631 0.62594253485383 1766568123.00953
-0.45511109932345 0.119171434920854 0.293983651846471 0.554756100625745 1766568123.02024
-0.453981036449831  0.149600975671426  0.203979972009261 0.519699011312129 1766568123.03104
-0.428083083002879  0.124045515654629  0.166789001443609 0.475879172595133 1766568123.04058
-0.272630919574092  0.333140142554919   0.14899684034922 0.455532689632015 1766568123.04985
-0.283641120609947  0.385701593142845  0.358064029761171 0.597852702312705 1766568123.05914
-0.364693415724666  0.378069661624999  0.459297232340762 0.697776399823073 1766568123.06817
-0.416705693923501  0.417011387443764  0.495946691449249 0.770392921414453 1766568123.07821
-0.423382551699993  0.422759321274739  0.503094167457211 0.781717321119431 1766568123.08903
-0.400712438378681   0.38216094996013  0.479765450697308 0.732661134241887 1766568123.09864
-0.648544165210729  0.461187894301198  0.455898877760016 0.917140989609392 1766568123.10995
-0.568607986695022  0.506687320579792  0.369460203374512 0.846491538792462 1766568123.12018
-0.496823697610563  0.523681854893452  0.241519761148376 0.761188719488963 1766568123.13099
-0.470423674699384  0.497933407931394  0.253392983998365 0.730372587650604 1766568123.14053
-0.373652078567506  0.633728900343553  0.235831321688272 0.772557187033882 1766568123.14986
-0.34832137291395 0.682765062201232  0.41627664319351 0.872228268665816 1766568123.15909
-0.451067623480749  0.702108519742398   0.49928590559338 0.972473542041959 1766568123.16818
-0.521563466127205  0.762189952214494  0.554791375861737 1.07738361004144 1766568123.17822
-0.521688006931977  0.760765741866146  0.563602233981564 1.08100433335062 1766568123.18904
-0.49070326924025 0.705969389461228 0.531694846199307 1.01088173728396 1766568123.19879
-0.709857368367396  0.782112403659271  0.455677686444674 1.15032145477112 1766568123.21011
-0.586116924263424  0.834320901378631  0.419265995104932 1.10245561817091 1766568123.2201
-0.573218885659601  0.852675599380013  0.312023661991385 1.0737757374319 1766568123.23092
-0.537093028464843  0.818030641724468  0.245806871326467 1.00899161047899 1766568123.24052
-0.413507618605671  0.977709560881651  0.238694926180764 1.08806240807628 1766568123.24984
-0.401635316299075  0.985274595970741  0.427871938256608 1.14680048496303 1766568123.25937
-0.555968783981671  0.987371155727504  0.514010872703498 1.24427097739284 1766568123.26821
-0.584070145814176  0.997541086418248  0.534305878020752 1.27346335856648 1766568123.27814
-0.576093911320512  0.987810691574418   0.54351259891502 1.26612009786933 1766568123.28903
-0.529669066378038  0.910202901296939  0.496653350604543 1.16433809182465 1766568123.29873
-0.606981251199453   1.06237722702027  0.422754794848064 1.2945243251349 1766568123.30999
 -0.5137265972329  1.06952214295895 0.420095999655532 1.25867918069323 1766568123.31979
-0.492667747191424   1.09308091794812  0.327314431325929 1.24285242054687 1766568123.33077
-0.428599836941398  0.867095482775594   0.32420865951432 1.02012923268579 1766568123.3403
-0.269188441570813   1.05119251634181  0.288383592240364 1.12277923910349 1766568123.34953
-0.277236122309078     1.093678683463   0.42369546116223 1.20520154911277 1766568123.35893
-0.384625130851746   1.08830652403589  0.469590542137325 1.24613918115378 1766568123.36805
-0.405467307207268   1.09306087267621  0.476146464566036 1.25932571811598 1766568123.37812
-0.400373865692045   1.08647991709788   0.48851745251006 1.2567367043232 1766568123.38903
-0.378242740578344    1.0432373033223  0.467370423622009 1.20409582455884 1766568123.3978
-0.428909715108653   1.05863882929965  0.425701941526024 1.21897574120019 1766568123.40755
-0.288035599075234    1.0909353258216  0.429774399777684 1.20739820530113 1766568123.41656
-0.166968313894658   1.02085161068817  0.365235253619092 1.09700192314128 1766568123.42599
-0.133103670796203   1.08418493262643  0.340321898497864 1.14411212296295 1766568123.44479
-0.166713727808781  0.806923387757194  0.248050134521219 0.860492701878082 1766568123.45323
-0.151139688317306  0.818403944266178  0.326369172079696 0.89394913605813 1766568123.46159
-0.123341349149228  0.812609881922692  0.327390684953148 0.884721746767002 1766568123.46983
-0.10067466945373  0.79142382834017  0.30155368702438 0.85289019884873 1766568123.47926
-0.108687268041527  0.795337281413594  0.302296120375692 0.857762938016613 1766568123.48904
-0.0943523048687918   0.765049049255205   0.285845994093079 0.822137663374819 1766568123.49883
-0.054473066762341  0.818249117129017  0.307622934754082 0.875860036005539 1766568123.50963
0.0091887767483624  0.902214228180141  0.363877588034889 0.972872985657895 1766568123.51936
0.0323896663668036  0.913056094823342  0.217106625264017 0.939071780810676 1766568123.53039
0.111222233802532 0.952342032910727 0.278145319433828 0.998343904505611 1766568123.54005
0.134023133269812 0.980732203073575  0.21765658914492 1.01349506421847 1766568123.54934
-0.0150275899229237    1.00090188567746   0.240602153920698 1.02952406950147 1766568123.55887
-0.186514293421576  0.991239218072761  0.271815175248422 1.04461775716832 1766568123.56799
-0.233380915674646   1.00384393991302  0.270157526077053 1.06543624698867 1766568123.57815
-0.243790495182458    1.0059807912058  0.272224092529078 1.07029767558826 1766568123.58908
-0.243745037830894   0.97118003550134  0.247797407964501 1.03150659727289 1766568123.59887
-0.25483823783063 0.947732424206985 0.196136989670765 1.00080417368783 1766568123.60953
-0.104807352784596  0.918063492759466  0.255727507823103 0.958760510342828 1766568123.61929
-0.0505466492679925    0.88575703958058   0.155231506107003 0.900676033547592 1766568123.63031
0.0537697618048307   0.80833773567047  0.306591443496298 0.866198242562611 1766568123.64001
0.0765466107951776  0.753039411160854  0.274813206617895 0.805263954810672 1766568123.64928
-0.0867667770417576    0.71858388996342    0.21325305313953 0.754564871423594 1766568123.65888
-0.30753170503272 0.672652902294803 0.198586912265094 0.765816190928958 1766568123.668
-0.302216382172471  0.662243120304052  0.215301822811551 0.759114989279912 1766568123.67817
-0.282318333165331  0.626034900064375   0.21192290479785 0.718703454087861 1766568123.68909
-0.278654157618677   0.60733247621334  0.198544020245473 0.697080055801941 1766568123.6989
-0.247724783856251  0.513587868639003  0.144752793064464 0.588297066497652 1766568123.70949
-0.0931058914179612   0.487623754426357   0.133200158793302 0.513992135348538 1766568123.71922
-0.0226674967752496   0.401603876181213  0.0846530883134191 0.411054295847679 1766568123.73027
0.0649531408612787  0.359493303276847   0.23155854089163 0.43252017694959 1766568123.73992
0.0846701186167995  0.335300680145084  0.179213379842372 0.389503543766761 1766568123.74933
-0.00133466426431772     0.36841550572478   0.0995618117094601 0.381633751832845 1766568123.75925
-0.191431337212609  0.384875288393813  0.046925518457806 0.432408312553959 1766568123.76793
-0.242883510731916  0.398485777016994 0.0440471937030582 0.468746700834698 1766568123.7783
-0.230306310747396  0.372691792377607 0.0366891236801638 0.439643333478546 1766568123.78909
-0.226684386028911  0.370585132676346 0.0355929681585837 0.435873847359975 1766568123.79889
 -0.198915909128211   0.290486268358535 -0.0269145322327479 0.353092343522876 1766568123.80944
-0.0777395744875367   0.272246056193603 -0.0087300045403246 0.283262368721558 1766568123.81918
 -0.0465224207975742     0.18656053927664 -0.00412764956234463 0.192317986530035 1766568123.83018
0.0633698374913717  0.235532252206489 0.0583980992054272 0.250801746652512 1766568123.84012
 0.103669866859659   0.34159471158136 0.0638747598942198 0.362649104819792 1766568123.84914
 0.0703863701340187   0.346699612434686 -0.0472864526391192 0.356918577502203 1766568123.85879
 -0.128153150434284   0.316561817707921 -0.0746837303180313 0.349588721172454 1766568123.86791
 -0.129948715720585   0.291976313781135 -0.0701627138458768 0.32719969887038 1766568123.87816
 -0.112010283120705   0.258376406884319 -0.0775388611027256 0.292090647129174 1766568123.88906
 -0.113641570318317   0.261486272842255 -0.0770498677924621 0.295340751533179 1766568123.89886
-0.111041311679103  0.222335828800372 -0.182029043024191 0.308055134954876 1766568123.90942
0.0834689297311271 0.0796378239971186 -0.141846437692549 0.182837789112432 1766568123.91921
  0.208349298883512 -0.0497541424806814 -0.0945388393113343 0.234142044873562 1766568123.93033
    0.33994861678265    0.029261754718646 -0.00529411162350848 0.341246743514914 1766568123.93993
 0.354867664901855 0.0753161477750412 -0.106906506320194 0.378196487030428 1766568123.9493
 0.305545719723832   0.10479970963255 -0.271073030091136 0.421689167069076 1766568123.95892
 0.136704461486656 0.0803590252819601 -0.303644266753305 0.342557328730207 1766568123.96809
 0.106454302506553 0.0734704105583092 -0.319162199522539 0.344376145157919 1766568123.97818
 0.116426691897515 0.0521830166694624 -0.322116532060971 0.34646399819016 1766568123.98911
  0.11025501464832 0.0563770750340975 -0.319353034756464 0.342521391525646 1766568123.99886
  0.164409299081509 0.00972294354915357  -0.410767238332651 0.442554716778802 1766568124.00946
  0.296573121380791 -0.0543615805733093  -0.433218702326103 0.527815537676835 1766568124.01923
 0.361556813308938  -0.12106195633008 -0.434492266080062 0.57806821033851 1766568124.03025
  0.439454508439369 -0.0504777581902748  -0.275039938085816 0.520879291776754 1766568124.03993
  0.5331319361427 0.124778190622742  -0.3395577351149 0.644281548445018 1766568124.04936
 0.469063236409368  0.164144133275042 -0.531855986937179 0.727897250359119 1766568124.05887
 0.271711319621224  0.142046435595711 -0.571811843632414 0.648824333386205 1766568124.06801
0.249941901182206 0.138945657586776 -0.58826709779889 0.654090993732161 1766568124.0782
 0.251260178151748   0.11811531839968 -0.589886637378116 0.651957936160583 1766568124.0891
 0.239562228645432  0.127232631716005 -0.589299459623478 0.64873111308112 1766568124.09893
 0.232436043866075 0.0892072138159531  -0.66325961633046 0.708447429340912 1766568124.10939
 0.405764778226243 0.0751737443705899 -0.754381776611821 0.859876742315835 1766568124.11913
  0.463779323193363 -0.0990966434380773   -0.74705611537219 0.884875270802261 1766568124.13014
  0.598098339112815 -0.0332860701240889  -0.535870899075706 0.803733292946124 1766568124.13997
 0.673971517149419 0.0722909810317051 -0.581114190099138 0.892836655722531 1766568124.14953
  0.64028409427783  0.097986938111605 -0.732227109689479 0.977610199205121 1766568124.15887
 0.457511494871206 0.0949606912998822 -0.764105982462116 0.895651859410693 1766568124.16801
 0.399395647555161  0.120176923172943 -0.786425071867026 0.890181874568551 1766568124.17809
 0.400211197460567  0.101781639553654 -0.790546092910217 0.891903374664913 1766568124.18907
0.379743525189121 0.104246905601193 -0.79496280679186 0.887151862103032 1766568124.19906
 0.367182255783866 0.0705392108310933 -0.833394744245876 0.91342508667315 1766568124.20928
 0.536002766178818 0.0313063946398793 -0.856275789610677 1.01068654070888 1766568124.21911
  0.588325220181672 -0.0739759023927252  -0.993023462236972 1.15658747848562 1766568124.23016
  0.673863204215347 -0.0177315752732798  -0.758218489241501 1.01454487539227 1766568124.23999
  0.71040561971746 0.0388948083254099 -0.749356520803604 1.03330738210452 1766568124.24948
 0.618748844624621 0.0209014989162961 -0.787479562368514 1.00170408131811 1766568124.25931
 0.474722016579347 0.0157705930349595 -0.808465026019012 0.937670199444217 1766568124.26809
  0.44724735956134 0.0199653017454987 -0.821632625738382 0.935686371379923 1766568124.27816
 0.452047200121015 -0.019408558498574 -0.844906538251037 0.958431229488894 1766568124.28914
  0.430492355671477 0.00732329336966562  -0.841597284178651 0.945337658011272 1766568124.29894
   0.43022753210178 -0.0856063078695807  -0.850760100138828 0.957192205000478 1766568124.30926
 0.542898974722618 -0.121611036173281  -0.89378749568458 1.0527984746931 1766568124.31904
  0.62827820355279 -0.247245771974897  -1.10827250865149 1.29774108598428 1766568124.33014
 0.722666913801085 -0.091211515286182  -1.02449081862915 1.25703955637005 1766568124.34007
0.773257695305965 0.012752395706832 -1.00372828948071 1.26710716439061 1766568124.34961
   0.59722470039749 -0.0745707098764813  -0.932863582598141 1.11016782392312 1766568124.3589
  0.397274430051934 -0.0798426979451764  -0.949370806891433 1.03223386796111 1766568124.36815
0.308313787065122 -0.07475109411162 -1.01204693790094 1.06060554490347 1766568124.37811
  0.315625486101405 -0.0940643907494226   -1.01827237212847 1.0702084754495 1766568124.38913
  0.295873583146518 -0.0493635273620319  -0.995627293302923 1.03983250680448 1766568124.39795
 0.247292601471547 -0.143961003217196  -1.04145701242581 1.08005143855316 1766568124.40731
0.367084004113343 -0.17952694244148 -1.15363228567853 1.2238660219559 1766568124.4161
 0.500816828233417 -0.286889316453436   -1.2830350067392 1.40687661287519 1766568124.42558
 0.763385999564942 -0.265690365510007  -1.44641112312465 1.65694136642046 1766568124.44486
  0.584850876480574 -0.0731190019221127  -0.671514413054717 0.893492329627066 1766568124.45331
 0.381716567253396 -0.114074267295181 -0.646650269232036 0.759524224019559 1766568124.4616
  0.125320143977709 -0.0920590958345081  -0.683402847885232 0.700870507376439 1766568124.46988
 0.110659836864967 -0.133393706440982 -0.803005363858323 0.821496862317977 1766568124.47935
 0.110504821796205  -0.14491371868212 -0.795074668859691 0.815692975674572 1766568124.4892
 0.102675320861288 -0.119983339660106 -0.783168747349566 0.798931480250371 1766568124.49891
 0.110779995638438 -0.225898620362698  -0.73824521700869 0.779941276348181 1766568124.50943
 0.167621222690934 -0.268541086422736 -0.707281167607551 0.774892146976473 1766568124.51915
 0.280716576816784 -0.308219563726306  -1.23125733494664 1.29992142871147 1766568124.53031
 0.289858892565825 -0.219657734057825  -1.81321592496802 1.84932952398661 1766568124.54024
0.172690181211233 -0.24824882103983 -1.50556135579529 1.53563158729514 1766568124.54971
0.0982266955528191 -0.300940403559152   -1.3914525827628 1.42700872467229 1766568124.55886
-0.0633325157970197   -0.30132386576569   -1.37075364534032 1.40491018782374 1766568124.56806
-0.0901636446620274  -0.327471542347322   -1.37994553163101 1.42113221205294 1766568124.57806
-0.0789250533180373  -0.349498826082755   -1.37772620389658 1.4235547359964 1766568124.58916
-0.0732859543968146  -0.349144804268384   -1.37985405682548 1.42522634819779 1766568124.59887
-0.0522269760640539    -0.4227222397944   -1.38058315691959 1.44479465745678 1766568124.60933
-0.104784383882441 -0.382479898610034  -1.28601162896508 1.34576987251899 1766568124.61906
 -0.12008374585127 -0.339979913487407  -1.58216075411072 1.62272582386575 1766568124.63023
-0.162593106654533 -0.156941033090761  -1.47964976423266 1.49680674470452 1766568124.64023
-0.338822432513572 -0.244913588976144  -1.17755677575402 1.24956923256129 1766568124.64956
-0.407714322689978 -0.268265863057667  -1.15933104513885 1.25787360828954 1766568124.65873
-0.580819696950481  -0.32840591985603  -1.13434110947495 1.31602876914109 1766568124.668
-0.549513246677764 -0.359521613373249  -1.15802589900978 1.33125676769519 1766568124.67796
-0.538350240627928 -0.370208124793605  -1.14510920735243 1.31838921946846 1766568124.68911
-0.504771219805948 -0.392498125855003  -1.13842425104268 1.30570231619085 1766568124.69875
 -0.54689375597166 -0.422371235442155  -1.31429973884185 1.48488182841918 1766568124.70931
-0.543343943159951 -0.348938962498568  -1.37229170988853 1.51662967699665 1766568124.71897
-0.495740508975095 -0.268548964478261  -1.39365776968007 1.50338257857102 1766568124.73015
-0.528344237473262 -0.210118945012997  -1.19104303119037 1.31980343478554 1766568124.74033
-0.605141885789073 -0.262040976002146 -0.882978935756524 1.10204989725068 1766568124.74948
-0.629526708154028 -0.264503910852549 -0.837343846456693 1.08046791360708 1766568124.75917
-0.609320786624182 -0.272463359495939  -0.89002979512609 1.11250219752247 1766568124.76788
-0.604188758076003 -0.280609622277191 -0.909404392607648 1.12729861385263 1766568124.77792
-0.604998149720771 -0.299403686664285 -0.911419529331369 1.13417409915777 1766568124.78901
-0.566258307127614 -0.322919551716056  -0.91983820133418 1.12739869784617 1766568124.79871
 -0.45270517004821 -0.248653533579466  -1.04588120854272 1.16646390991436 1766568124.80928
-0.527509835992552 -0.159507384298789  -1.19807584312564 1.31874749614775 1766568124.81901
-0.614884374181713  0.102651521266689  -1.25265504139455 1.3992014798314 1766568124.83016
-0.601043850338207 0.0392440899336564  -0.74962093676328 0.961626412624962 1766568124.84025
-0.602159928465597 0.0359535289789696 -0.515693985990647 0.79361799556377 1766568124.84933
-0.588509483470575 0.0569265725017518 -0.541446189234024 0.801715674430559 1766568124.85844
-0.537590762177012 0.0574891535683802 -0.584246427396896 0.796023063913418 1766568124.86771
-0.526203958554959 0.0523122813560943  -0.58766323382222 0.790553766144958 1766568124.87787
-0.533087346778939 0.0378739213508517 -0.599593867094284 0.803199451363967 1766568124.88893
-0.481769394637243 0.0262869436546102  -0.59826176472729 0.768576536299702 1766568124.89867
-0.435813530170332 0.0233240305253779 -0.798988024698079 0.910417106105995 1766568124.90922
-0.342766656620469 0.0615425934883271  -0.94101417450028 1.00338634050623 1766568124.91893
-0.369253839265851  0.202475534496738 -0.958756794400235 1.04716728878003 1766568124.93015
 -0.287397918650545 -0.0316354381838258      -0.46324255587 0.546069620252508 1766568124.9401
 -0.295815136687165 -0.0791433721061212  -0.376507019567443 0.485312068905289 1766568124.94932
 -0.282883988025545 -0.0835246902014303  -0.347995341185139 0.456180317463438 1766568124.95843
 -0.248669253314944 -0.0895599519211079   -0.35684833767278 0.444069947904775 1766568124.96768
 -0.223670661292778 -0.0949017889108196  -0.355354726967127 0.430478682677207 1766568124.9779
 -0.248327642568897 -0.0964012341187523  -0.365585072896554 0.452340868735318 1766568124.98892
 -0.249509630221948 -0.0563118059998812  -0.330973459956862 0.418293564693838 1766568124.99877
 -0.196748142764036 -0.0627309882221586  -0.512085353083589 0.552156153100887 1766568125.00937
-0.0502139898170009 -0.0410112227849441  -0.641188485459083 0.644457942035763 1766568125.01897
-0.113606291316466  0.196594666538221  -0.65286392354951 0.691221494899006 1766568125.03025
-0.0496424589276523 -0.0507823129781252  -0.278439251054937 0.287352803306017 1766568125.04013
-0.0378657008988343  -0.053987909731483  -0.177024159705648 0.188907540403302 1766568125.04928
-0.0498080113153236 -0.0838692940155702 -0.0694723587950583 0.119755188223337 1766568125.0585
-0.0596967883068044  -0.100560079452141 -0.0440035755911501 0.124949392869171 1766568125.06777
-0.0383016677365561  -0.105133973593376 -0.0308944241016399 0.116080298050557 1766568125.07791
-0.0436383817762685  -0.109482659956603 -0.0436349231294615 0.125677236251194 1766568125.08895
-0.0779558626182823 -0.0615740014760034 -0.0234230376090964 0.102064258509845 1766568125.09867
0.0098784418580697 -0.122819996595568 -0.165867141637378 0.206625854752576 1766568125.10929
0.0822100508951451 -0.123418631249883 -0.239411639763782 0.28161779819848 1766568125.119
-0.0202781068975489  0.0823671209543144  -0.232931946458933 0.247896825140618 1766568125.13034
-0.0148107118235856  -0.187373318681448  0.0482105608853205 0.194042201387476 1766568125.14025
-0.0252276670413109  -0.236771513801768   0.172610899813467 0.294094725669711 1766568125.14942
-0.0269486129797568  -0.267657646331814   0.221228482337771 0.348294250281128 1766568125.15863
-0.00715562404808861   -0.263814855210105    0.255454709427433 0.36729632363216 1766568125.16797
-0.00668774195912722    -0.26736089834799    0.259129892896274 0.372390758814434 1766568125.17792
0.00488636803780024  -0.272039310049736   0.260957994603942 0.376999121686839 1766568125.18901
-0.0443832785647114  -0.212927027675749   0.277332859712548 0.352450435674751 1766568125.1988
-0.00192030411354619   -0.259957677361556    0.141786215255994 0.296116552093466 1766568125.20936
0.0109706956754883 -0.213798396336988 0.0775103156263917 0.227679510427212 1766568125.21916
-0.0729286817620946  0.0162778481960394  0.0978255712171394 0.123099160636496 1766568125.23052
-0.0434169760204756  -0.218151426334758    0.54937122779134 0.592692014914674 1766568125.24038
-0.0542362596199978  -0.248521158628452   0.639542929028995 0.68827283559253 1766568125.24955
-0.126046014329701 -0.309838412511657   0.69999609356207 0.775810524933959 1766568125.25922
-0.131505165770236 -0.320305376862582  0.724580672648417 0.803060579437797 1766568125.26802
 -0.12082010115441 -0.327310866845531  0.727294458601046 0.80665180214881 1766568125.27798
-0.124567832255764 -0.339668113259863  0.711284506158049 0.798008283602943 1766568125.28906
-0.149184968958821 -0.296929996969491  0.710494796030956 0.784363712349453 1766568125.29892
-0.0573427483115265   -0.32796492978085   0.490408182063695 0.592747307868281 1766568125.30934
-0.0569351366093358   -0.26796622697558   0.461418067085178 0.53661358649672 1766568125.31911
-0.0839973757334221 -0.0757256810459327   0.570897160411482 0.581990984179193 1766568125.33041
-0.0535566287110081  -0.285217786807599    1.08793261040135 1.12597285187744 1766568125.34032
-0.0919961950162772  -0.355040138885699    1.18567711350134 1.24110717409832 1766568125.34947
-0.129251766833219  -0.38026405121721   1.20073722940953 1.26612663741338 1766568125.35869
-0.138853103893355 -0.393468674485283   1.20851568331641 1.27851786811282 1766568125.36801
   -0.134151685273 -0.392054683564602   1.21850942152918 1.28703875618487 1766568125.37795
-0.138269263451292 -0.406988883663345   1.21498753635487 1.28877967633672 1766568125.38899
-0.134325591837959 -0.413845685485861   1.18678841519164 1.26403257808134 1766568125.39784
0.0706463925020436 -0.422827677643656    1.1092768324745 1.18923052803892 1766568125.40754
-0.00721826091091106    -0.32679246913771    0.866966266867844 0.92653976118808 1766568125.41628
0.00957022701801319  -0.185535729887327   0.977858211131951 0.995350077805883 1766568125.42577
0.0264437783767681 -0.167941817873321   1.59089782659872 1.59995613136172 1766568125.44492
-0.0129147630304341  -0.262534218039124      1.596990468063 1.61847754443169 1766568125.45321
-0.116786995710599 -0.304229372277599   1.54842403719976 1.58234374024784 1766568125.46147
-0.107482607184288 -0.316106149838439   1.51167903058131 1.54811146249618 1766568125.46983
-0.0875579123688377  -0.322535418503307    1.51401887846351 1.55046723556204 1766568125.47927
-0.100871250170118 -0.316933223956165   1.51437386547782 1.55046763332885 1766568125.48909
-0.0843851618000412  -0.320283330519966    1.50084654152893 1.53695888317168 1766568125.49875
0.0669425467112902 -0.358884323542896   1.35759227886611 1.40582219995344 1766568125.50946
0.0294869402819603 -0.300422413707124   1.26511020463115 1.30062559415332 1766568125.51919
  0.040255646037399 -0.0982310369451354    1.37997318229911 1.38405051841395 1766568125.53046
0.0826085426228343 -0.132017997055389   1.62525793179425 1.6327021368642 1766568125.54056
0.0016652448070122 -0.283271426263348   1.78015093807501 1.80254898305341 1766568125.54975
-0.0655417016573899  -0.317499562491771    1.78953116587666 1.81865980339438 1766568125.55894
  -0.1067262759193 -0.350038139649792   1.76047702894455 1.79810916426743 1766568125.56817
-0.0959291659159326  -0.369820570502892    1.74616157825043 1.78747025614371 1766568125.57814
-0.0968402437134714  -0.385914471854836    1.74162229587506 1.78649271867495 1766568125.58917
-0.0855539526195112  -0.381789601794322    1.73379502145633 1.77739358479596 1766568125.59891
-0.0137956609567641  -0.408284300382739    1.70014595550915 1.74853729163389 1766568125.60955
-0.00158159368373895   -0.312683288652952     1.44297392608323 1.47646438893644 1766568125.61929
0.0518912343641141 -0.270609131525361   1.45364270811889 1.47952665577068 1766568125.63046
 0.116807014068422 -0.258217093273808   1.50315627572814 1.52964006715804 1766568125.6405
0.0603597880287922 -0.326799877007081   1.55153208249026 1.58672406757423 1766568125.64991
0.0321225524096079 -0.356788735405029   1.58342878707709 1.62344595962713 1766568125.65895
0.0134213187927048 -0.374521120891857   1.54907614165532 1.59376381388145 1766568125.66818
0.00650718556239795  -0.378772229262517    1.54259223649369 1.58842738367703 1766568125.67822
0.00880875051233383  -0.387507351481216    1.54511855698633 1.59299431784331 1766568125.68919
-0.00774023188149882    -0.37075935266471     1.54534546683231 1.58921836782649 1766568125.69888
0.0571717491401016 -0.372880617021846   1.54297067625351 1.5884165295125 1766568125.70959
0.070648054282569 -0.24646188460225  1.34974409711446 1.37387908340979 1766568125.71939
 0.159407295657051 -0.216419950003833   1.30942175399087 1.336724956935 1766568125.73052
  0.193422448465618 -0.0560844503466669     1.2792917503398 1.2950463665941 1766568125.74042
 0.151628260039412 -0.156973175444366   1.60155062408629 1.61635271786911 1766568125.74983
0.00165210863443377  -0.251548314787655    1.68523444971866 1.7039056413587 1766568125.75927
-0.0801181981583048  -0.266390218875055    1.71563955564115 1.7380453846977 1766568125.76814
-0.102147109563682 -0.264182193326333   1.71242729819797 1.73569395772311 1766568125.77815
-0.0966570847532565  -0.280966336803299    1.71271089088806 1.73829320605479 1766568125.78916
-0.0763723805136512  -0.282453389998352    1.70723478377354 1.73212680394743 1766568125.79888
-0.0611134241806087  -0.318336327035654     1.7489315176024 1.77871704354253 1766568125.80963
0.0458393115888222 -0.321246872474387   1.69268058716499 1.72350467528427 1766568125.8194
 0.094466046185885 -0.293402027369065     1.538807831765 1.56937507519636 1766568125.83057
 0.159209688193807 -0.150193425466519   1.43519151590464 1.45178527241214 1766568125.84039
 0.158252574549608 -0.169984899506891    1.5989504945794 1.61572937942208 1766568125.84986
0.0384110338066408 -0.227209774050475    1.7245830707281 1.73990989904194 1766568125.85907
-0.0374586044038483  -0.225475365646183    1.75103104418545 1.76588561499842 1766568125.86823
-0.0639234782468546   -0.21787763410132    1.73768251483146 1.75245467754911 1766568125.87816
-0.0642778790650936  -0.218304482969753    1.73988779333838 1.75470739054399 1766568125.88925
-0.0528918229542382  -0.222261100224387    1.74026125106146 1.75519422388361 1766568125.89892
-0.0457876384090863  -0.248918790458892    1.67394073482493 1.69296622995877 1766568125.90966
 0.136207364363541 -0.227966045235638   1.61819084369077 1.63983614135434 1766568125.9195
0.154404794585027  -0.3086773429743   1.6168237687592 1.65325183861419 1766568125.9306
 0.263783180350928 -0.177549037993851   1.60146486046329 1.63272622519126 1766568125.94034
 0.280949586404451 -0.111910275516561   1.64583230177016 1.67338595231856 1766568125.94969
 0.176080572713609 -0.132382847510431   1.75836304851956 1.77210896865885 1766568125.95901
 0.112176967045682 -0.150261734684456   1.77701348031045 1.78687973015842 1766568125.9682
0.0918743081592581 -0.138952516117767   1.80428636813462 1.81195970939522 1766568125.97818
0.0852545579665427 -0.142123379186182   1.80305797070528 1.81065884149643 1766568125.9892
0.0894501224142812 -0.142584705287927   1.79907860858611 1.80693540627608 1766568125.99887
 0.105229882732581 -0.139636683690302   1.76128528895732 1.76994282414699 1766568126.00969
 0.249811103464255 -0.190853029709428   1.66050498003427 1.69000214647258 1766568126.0195
 0.255235418009506 -0.228109937042133   1.64898424003854 1.68414022156094 1766568126.0305
 0.289096540241317 -0.238710463333993   1.64108955477996 1.68336995984024 1766568126.04024
  0.396654542935134 -0.0274363304200403    1.62867314672006 1.67650344392877 1766568126.04958
  0.333818115377926 -0.0165767707578178    1.70525648384218 1.73770221820915 1766568126.05899
  0.183423630516203 -0.0205651107396131    1.73398052165944 1.74377624754606 1766568126.06823
  0.154679902739019 0.00174497345950074    1.75221336054541 1.75902830509277 1766568126.07815
 0.137279780937873 0.0162827170600932   1.76801941462126 1.77341577629357 1766568126.08917
    0.123480406044967 -0.000150728748035535      1.74360346680531 1.74797038958092 1766568126.09886
 0.0900686632367076 -0.0547479887983254    1.74639882872916 1.74957668461868 1766568126.10966
  0.218462705597856 -0.0143440020372633    1.77860694441021 1.79203079405344 1766568126.11948
  0.265167971805528 -0.0471440149247119     1.6200995600583 1.64233346063331 1766568126.13045
 0.263157227497649 -0.137155163903675   1.57767270710905 1.60533935232601 1766568126.1402
 0.366593215083412 0.0210999524369529   1.55937283428698 1.6020235421648 1766568126.1495
0.392673077072878 0.093408808908854  1.57536769051069 1.62625358150094 1766568126.15906
0.237505538936483 0.108444037332669  1.60369947243417 1.62481413956925 1766568126.16823
0.140042512371162 0.154959222277159  1.61057535640817 1.6240619583345 1766568126.17824
0.126708295739027  0.16408212313168  1.61781710706155 1.63104571586497 1766568126.1892
0.146955368885643 0.134562317010024  1.58108448040816 1.59359060984651 1766568126.19894
 0.102523827023141 0.0986707878006454   1.59960394233409 1.60592024453378 1766568126.20966
0.160182176676771 0.125458009608392  1.53367762322918 1.5471150874753 1766568126.21945
0.165910683940912 0.130722264766429  1.49224623263412 1.50712092559361 1766568126.2304
  0.193333355405851 0.00925231914406488    1.38625479470805 1.39970202099343 1766568126.24018
 0.249733538349061 0.0425149439477527   1.35795171383239 1.38137873797722 1766568126.24947
 0.209985088490151 0.0953437958301166    1.3509701177941 1.37051247202064 1766568126.25937
0.048093066409959 0.159132171350143  1.30912051120946 1.3196334733041 1766568126.26823
-0.0306791873714525   0.196221106089387     1.3241664674357 1.33897750858402 1766568126.27829
-0.0527264153757049    0.20859255534084    1.32610339197714 1.34344375961008 1766568126.28922
-0.0566555568039725   0.203748527473799    1.31676475072656 1.33363890289707 1766568126.29891
-0.0590914490752016   0.128471685543707    1.29680586933351 1.30449309545052 1766568126.30968
-0.0147192706817891   0.176617232941189    1.24268058148679 1.25525508622971 1766568126.3195
0.0461362998517663  0.120719028622263   1.21262327853926 1.21949040901961 1766568126.33043
  0.11152542031185 0.0278789328418093   1.13164916890994 1.13747307474361 1766568126.34018
 0.155357458395919 0.0580289059224884   1.09429452354037 1.10678986174081 1766568126.3494
0.151378884219815 0.106056981722717   1.0604976442067 1.07648451142026 1766568126.35886
0.0840942341630692  0.139436223976921   1.06440150946222 1.07678450681735 1766568126.36819
-0.00102619962339786    0.166367927187344     1.09117552233975 1.10378592165134 1766568126.37831
-0.00594085468612117    0.169745930604155     1.09797576542725 1.11103544325851 1766568126.38917
-0.0238865243573651   0.156815148478384    1.05730009856738 1.06913285202016 1766568126.39791
-0.0322748563475851   0.147074267560102    1.00321829360373 1.0144552484717 1766568126.40775
0.0238576602665989 0.0742777071574202   1.10526006775437 1.10801001038183 1766568126.41648
  0.10268356353564 0.0840920877238304   1.08804966135717 1.09611471070212 1766568126.42587
  0.10724440182132 0.0964417670386602   1.13464490203513 1.14377507835494 1766568126.44468
 0.174357982893962 0.0892910419591714  0.814601848374679 0.837824425371121 1766568126.45305
